ply
format ascii 1.0
element vertex 369
property float x
property float y
property float z
property uchar red
property uchar green
property uchar blue
end_header
0 0 0 0 255 255
-0.000404543272452428937 -0.00161817308980971575 0 0 255 255
-0.12443927675485611 0.990659713745117188 0 0 255 255
0.183527424931526184 1.94205689430236816 0 0 255 255
0.00306798168458044529 2.92563915252685547 0 0 255 255
0.0483320616185665131 3.92461442947387695 0 0 255 255
-0.0146104944869875908 4.92263126373291016 0 0 255 255
0.0217760130763053894 5.92196941375732422 0 0 255 255
-0.00129476864822208881 6.92170286178588867 0 0 255 255
-0.269346714019775391 7.88510751724243164 0 0 255 255
-0.440750807523727417 8.87030792236328125 0 0 255 255
-1.24836909770965576 9.46001434326171875 0 0 255 255
-2.23499393463134766 9.62302112579345703 0 0 255 255
-3.23086237907409668 9.53221416473388672 0 0 255 255
-4.23084354400634766 9.52606678009033203 0 0 255 255
-5.22702169418334961 9.43872261047363281 0 0 255 255
-6.22586536407470703 9.39064788818359375 0 0 255 255
-7.22586202621459961 9.38800048828125 0 0 255 255
-8.21566295623779297 9.24554061889648438 0 0 255 255
-9.19104194641113281 9.02500820159912109 0 0 255 255
-10.1717004776000977 8.82927989959716797 0 0 255 255
-11.1292314529418945 8.54094982147216797 0 0 255 255
-12.118743896484375 8.39650249481201172 0 0 255 255
-13.1109418869018555 8.27183246612548828 0 0 255 255
-14.105952262878418 8.17206096649169922 0 0 255 255
-15.0330543518066406 7.79725122451782227 0 0 255 255
-15.3897848129272461 6.86304426193237305 0 0 255 255
-15.4261159896850586 5.86370420455932617 0 0 255 255
-15.7520036697387695 4.91829586029052734 0 0 255 255
-16.2530326843261719 4.05286502838134766 0 0 255 255
-16.3987312316894531 3.06353592872619629 0 0 255 255
-16.1986675262451172 2.08375310897827148 0 0 255 255
-16.1005973815917969 1.08857369422912598 0 0 255 255
-16.0790214538574219 0.0888064727187156677 0 0 255 255
-15.9712495803833008 -0.905369102954864502 0 0 255 255
-15.8266363143920898 -1.89485728740692139 0 0 255 255
-15.53948974609375 -2.85274386405944824 0 0 255 255
-15.0700702667236328 -3.73571968078613281 0 0 255 255
-14.6594038009643555 -4.64750480651855469 0 0 255 255
-14.5301389694213867 -5.6391148567199707 0 0 255 255
-14.300755500793457 -6.61245107650756836 0 0 255 255
-13.6986980438232422 -7.4109044075012207 0 0 255 255
-12.7569360733032227 -7.74718475341796875 0 0 255 255
-11.7592935562133789 -7.67856407165527344 0 0 255 255
-10.8269004821777344 -7.31711912155151367 0 0 255 255
-9.87501621246337891 -7.01066017150878906 0 0 255 255
-8.90808868408203125 -6.75560903549194336 0 0 255 255
-8.03569126129150391 -6.26681137084960938 0 0 255 255
-7.25898408889770508 -5.63695001602172852 0 0 255 255
-6.42642879486083984 -5.0830082893371582 0 0 255 255
-5.55117273330688477 -4.59934806823730469 0 0 255 255
-4.74394035339355469 -4.00911426544189453 0 0 255 255
-4.28465604782104492 -3.12082481384277344 0 0 255 255
-4.20019292831420898 -2.12439823150634766 0 0 255 255
-4.32095861434936523 -1.13171720504760742 0 0 255 255
-4.39094209671020508 -0.134169042110443115 0 0 255 255
-4.44522237777709961 0.864356696605682373 0 0 255 255
-4.53215742111206055 1.86057066917419434 0 0 255 255
-4.66553640365600586 2.85163569450378418 0 0 255 255
-4.80674839019775391 3.84161520004272461 0 0 255 255
-4.55391550064086914 4.80912494659423828 0 0 255 255
-3.9745028018951416 5.62415933609008789 0 0 255 255
-3.25659823417663574 6.32030057907104492 0 0 255 255
-2.88013243675231934 7.24673128128051758 0 0 255 255
-2.83276891708374023 8.24560928344726562 0 0 255 255
-2.15571236610412598 8.98153972625732422 0 0 255 255
-1.50902712345123291 9.74429702758789062 0 0 255 255
-1.88582527637481689 8.81800174713134766 0 0 255 255
-0.889584660530090332 8.73137187957763672 0 0 255 255
0 0 0 0 255 0
0.00998162664473056793 0.000304518966004252434 0.000523833732586354017 0 255 0
0.0199632532894611359 0.000609037932008504868 0.00104766746517270803 0 255 0
0.0299448799341917038 0.000913556839805096388 0.00157150125596672297 0 255 0
0.0399265065789222717 0.00121807586401700974 0.00209533493034541607 0 255 0
0.0499081313610076904 0.00152259471360594034 0.002619168721139431 0 255 0
0.0598897598683834076 0.00182711367961019278 0.00314300251193344593 0 255 0
0.0698713883757591248 0.00213163276202976704 0.00366683606989681721 0 255 0
0.0798530131578445435 0.00243615172803401947 0.00419066986069083214 0 255 0
0.0898346379399299622 0.00274067046120762825 0.00471450388431549072 0 255 0
0.0998162627220153809 0.00304518942721188068 0.005238337442278862 0 255 0
0.1097978875041008 0.00334970839321613312 0.00576217100024223328 0 255 0
0.119779519736766815 0.00365422735922038555 0.00628600502386689186 0 255 0
0.129761144518852234 0.00395874632522463799 0.00680983858183026314 0 255 0
0.13974277675151825 0.00426326552405953407 0.00733367213979363441 0 255 0
0.149724394083023071 0.00456778425723314285 0.007857506163418293 0 255 0
0.159706026315689087 0.00487230345606803894 0.00838133972138166428 0 255 0
0.169687643647193909 0.00517682218924164772 0.00890517327934503555 0 255 0
0.179669275879859924 0.0054813409224152565 0.00942900776863098145 0 255 0
0.18965090811252594 0.00578586012125015259 0.00995284132659435272 0 255 0
0.199632525444030762 0.00609037885442376137 0.010476674884557724 0 255 0
0.209614157676696777 0.00639489805325865746 0.0110005084425210953 0 255 0
0.219595775008201599 0.00669941678643226624 0.0115243420004844666 0 255 0
0.229577407240867615 0.00700393598526716232 0.0120481755584478378 0 255 0
0.23955903947353363 0.0073084547184407711 0.0125720100477337837 0 255 0
0.249540656805038452 0.00761297391727566719 0.013095843605697155 0 255 0
0.259522289037704468 0.00791749265044927597 0.0136196771636605263 0 255 0
0.269503921270370483 0.00822201184928417206 0.0141435107216238976 0 255 0
0.279485553503036499 0.00852653104811906815 0.0146673442795872688 0 255 0
0.289467155933380127 0.00883104931563138962 0.0151911787688732147 0 255 0
0.299448788166046143 0.00913556851446628571 0.015715012326836586 0 255 0
0.309430420398712158 0.00944008771330118179 0.0162388458847999573 0 255 0
0.319412052631378174 0.00974460691213607788 0.0167626794427633286 0 255 0
0.329393684864044189 0.0100491251796483994 0.0172865130007266998 0 255 0
0.339375287294387817 0.0103536443784832954 0.0178103465586900711 0 255 0
0.349356919527053833 0.0106581635773181915 0.0183341801166534424 0 255 0
0.359338551759719849 0.010962681844830513 0.0188580155372619629 0 255 0
0.369320183992385864 0.0112672010436654091 0.0193818490952253342 0 255 0
0.37930181622505188 0.0115717202425003052 0.0199056826531887054 0 255 0
0.389283418655395508 0.0118762394413352013 0.0204295162111520767 0 255 0
0.399265050888061523 0.0121807577088475227 0.020953349769115448 0 255 0
0.409246683120727539 0.0124852769076824188 0.0214771833270788193 0 255 0
0.419228315353393555 0.0127897961065173149 0.0220010168850421906 0 255 0
0.42920994758605957 0.013094315305352211 0.0225248504430055618 0 255 0
0.439191550016403198 0.0133988335728645325 0.0230486840009689331 0 255 0
0.449173182249069214 0.0137033527716994286 0.0235725175589323044 0 255 0
0.459154814481735229 0.0140078719705343246 0.0240963511168956757 0 255 0
0.469136446714401245 0.0143123911693692207 0.0246201865375041962 0 255 0
0.479118078947067261 0.0146169094368815422 0.0251440200954675674 0 255 0
0.489099681377410889 0.0149214286357164383 0.0256678536534309387 0 255 0
0.499081313610076904 0.0152259478345513344 0.02619168721139431 0 255 0
0.50906294584274292 0.0155304661020636559 0.0267155207693576813 0 255 0
0.519044578075408936 0.0158349853008985519 0.0272393543273210526 0 255 0
0.529026210308074951 0.0161395035684108734 0.0277631878852844238 0 255 0
0.539007842540740967 0.0164440236985683441 0.0282870214432477951 0 255 0
0.548989474773406982 0.0167485419660806656 0.0288108550012111664 0 255 0
0.558971107006072998 0.0170530620962381363 0.0293346885591745377 0 255 0
0.568952679634094238 0.0173575803637504578 0.0298585239797830582 0 255 0
0.578934311866760254 0.0176620986312627792 0.0303823575377464294 0 255 0
0.58891594409942627 0.0179666187614202499 0.0309061910957098007 0 255 0
0.598897576332092285 0.0182711370289325714 0.031430024653673172 0 255 0
0.608879208564758301 0.0185756552964448929 0.031953856348991394 0 255 0
0.618860840797424316 0.0188801754266023636 0.0324776917695999146 0 255 0
0.628842473030090332 0.0191846936941146851 0.0330015271902084351 0 255 0
0.638824105262756348 0.0194892138242721558 0.0335253588855266571 0 255 0
0.648805737495422363 0.0197937320917844772 0.0340491943061351776 0 255 0
0.658787369728088379 0.0200982503592967987 0.0345730260014533997 0 255 0
0.668768942356109619 0.0204027704894542694 0.0350968614220619202 0 255 0
0.678750574588775635 0.0207072887569665909 0.0356206931173801422 0 255 0
0.68873220682144165 0.0210118070244789124 0.0361445285379886627 0 255 0
0.698713839054107666 0.0213163271546363831 0.0366683602333068848 0 255 0
0.708695471286773682 0.0216208454221487045 0.0371921956539154053 0 255 0
0.718677103519439697 0.021925363689661026 0.0377160310745239258 0 255 0
0.728658735752105713 0.0222298838198184967 0.0382398627698421478 0 255 0
0.738640367984771729 0.0225344020873308182 0.0387636981904506683 0 255 0
0.748622000217437744 0.0228389222174882889 0.0392875298857688904 0 255 0
0.75860363245010376 0.0231434404850006104 0.0398113653063774109 0 255 0
0.768585264682769775 0.0234479587525129318 0.0403351970016956329 0 255 0
0.778566837310791016 0.0237524788826704025 0.0408590324223041534 0 255 0
0.788548469543457031 0.024056997150182724 0.0413828641176223755 0 255 0
0.798530101776123047 0.0243615154176950455 0.041906699538230896 0 255 0
0.808511734008789062 0.0246660355478525162 0.042430531233549118 0 255 0
0.818493366241455078 0.0249705538153648376 0.0429543666541576385 0 255 0
0.828474998474121094 0.0252750739455223083 0.0434782020747661591 0 255 0
0.838456630706787109 0.0255795922130346298 0.0440020337700843811 0 255 0
0.848438262939453125 0.0258841104805469513 0.0445258691906929016 0 255 0
0.858419895172119141 0.026188630610704422 0.0450497008860111237 0 255 0
0.868401527404785156 0.0264931488782167435 0.0455735363066196442 0 255 0
0.878383100032806396 0.0267976671457290649 0.0460973680019378662 0 255 0
0.888364732265472412 0.0271021872758865356 0.0466212034225463867 0 255 0
0.898346364498138428 0.0274067055433988571 0.0471450351178646088 0 255 0
0.908327996730804443 0.0277112238109111786 0.0476688705384731293 0 255 0
0.918309628963470459 0.0280157439410686493 0.0481927022337913513 0 255 0
0.928291261196136475 0.0283202622085809708 0.0487165376543998718 0 255 0
0.93827289342880249 0.0286247823387384415 0.0492403730750083923 0 255 0
0.948254525661468506 0.0289293006062507629 0.0497642047703266144 0 255 0
0.958236157894134521 0.0292338188737630844 0.0502880401909351349 0 255 0
0.968217790126800537 0.0295383390039205551 0.0508118718862533569 0 255 0
0.978199362754821777 0.0298428572714328766 0.0513357073068618774 0 255 0
0.988180994987487793 0.0301473755389451981 0.0518595390021800995 0 255 0
0 0 0 255 0 0
-0.000562940957024693489 0.00146290427073836327 0.00987638626247644424 255 0 0
-0.00112588191404938698 0.00292580854147672653 0.0197527725249528885 255 0 0
-0.00168882287107408047 0.0043887128122150898 0.0296291597187519073 255 0 0
-0.00225176382809877396 0.00585161708295345306 0.039505545049905777 255 0 0
-0.00281470478512346745 0.00731452135369181633 0.0493819303810596466 255 0 0
-0.00337764574214816093 0.0087774256244301796 0.0592583194375038147 255 0 0
-0.00394058693200349808 0.0102403294295072556 0.0691347047686576843 255 0 0
-0.00450352765619754791 0.0117032341659069061 0.079011090099811554 255 0 0
-0.00506646884605288506 0.0131661379709839821 0.0888874754309654236 255 0 0
-0.00562940957024693489 0.0146290427073836327 0.0987638607621192932 255 0 0
-0.00619235076010227203 0.0160919465124607086 0.10864025354385376 255 0 0
-0.00675529148429632187 0.0175548512488603592 0.118516638875007629 255 0 0
-0.00731823267415165901 0.0190177559852600098 0.128393024206161499 255 0 0
-0.00788117386400699615 0.0204806588590145111 0.138269409537315369 255 0 0
-0.00844411458820104599 0.0219435635954141617 0.148145794868469238 255 0 0
-0.00900705531239509583 0.0234064683318138123 0.158022180199623108 255 0 0
-0.00956999696791172028 0.0248693730682134628 0.167898565530776978 255 0 0
-0.0101329376921057701 0.0263322759419679642 0.177774950861930847 255 0 0
-0.0106958784162998199 0.0277951806783676147 0.187651336193084717 255 0 0
-0.0112588191404938698 0.0292580854147672653 0.197527721524238586 255 0 0
-0.0118217607960104942 0.0307209901511669159 0.20740412175655365 255 0 0
-0.0123847015202045441 0.0321838930249214172 0.21728050708770752 255 0 0
-0.0129476422443985939 0.033646799623966217 0.227156892418861389 255 0 0
-0.0135105829685926437 0.0351097024977207184 0.237033277750015259 255 0 0
-0.0140735246241092682 0.0365726053714752197 0.246909663081169128 255 0 0
-0.014636465348303318 0.0380355119705200195 0.256786048412322998 255 0 0
-0.0151994060724973679 0.0394984148442745209 0.266662418842315674 255 0 0
-0.0157623477280139923 0.0409613177180290222 0.276538819074630737 255 0 0
-0.0163252875208854675 0.042424224317073822 0.286415219306945801 255 0 0
-0.016888229176402092 0.0438871271908283234 0.296291589736938477 255 0 0
-0.0174511708319187164 0.0453500337898731232 0.30616798996925354 255 0 0
-0.0180141106247901917 0.0468129366636276245 0.316044360399246216 255 0 0
-0.0185770522803068161 0.0482758395373821259 0.325920760631561279 255 0 0
-0.0191399939358234406 0.0497387461364269257 0.335797131061553955 255 0 0
-0.0197029337286949158 0.051201649010181427 0.345673531293869019 255 0 0
-0.0202658753842115402 0.0526645518839359283 0.355549901723861694 255 0 0
-0.0208288151770830154 0.0541274584829807281 0.365426301956176758 255 0 0
-0.0213917568325996399 0.0555903613567352295 0.375302672386169434 255 0 0
-0.0219546984881162643 0.0570532679557800293 0.385179072618484497 255 0 0
-0.0225176382809877396 0.0585161708295345306 0.395055443048477173 255 0 0
-0.023080579936504364 0.059979073703289032 0.404931843280792236 255 0 0
-0.0236435215920209885 0.0614419803023338318 0.4148082435131073 255 0 0
-0.0242064613848924637 0.0629048869013786316 0.424684613943099976 255 0 0
-0.0247694030404090881 0.0643677860498428345 0.434561014175415039 255 0 0
-0.0253323446959257126 0.0658306926488876343 0.444437384605407715 255 0 0
-0.0258952844887971878 0.0672935992479324341 0.454313784837722778 255 0 0
-0.0264582261443138123 0.068756498396396637 0.464190155267715454 255 0 0
-0.0270211659371852875 0.0702194049954414368 0.474066555500030518 255 0 0
-0.0275841075927019119 0.0716823115944862366 0.483942925930023193 255 0 0
-0.0281470492482185364 0.0731452107429504395 0.493819326162338257 255 0 0
-0.0287099890410900116 0.0746081173419952393 0.50369572639465332 255 0 0
-0.029272930696606636 0.0760710239410400391 0.513572096824645996 255 0 0
-0.0298358723521232605 0.0775339230895042419 0.523448467254638672 255 0 0
-0.0303988121449947357 0.0789968296885490417 0.533324837684631348 255 0 0
-0.0309617538005113602 0.0804597362875938416 0.543201267719268799 255 0 0
-0.0315246954560279846 0.0819226354360580444 0.553077638149261475 255 0 0
-0.0320876352488994598 0.0833855420351028442 0.56295400857925415 255 0 0
-0.0326505750417709351 0.084848448634147644 0.572830438613891602 255 0 0
-0.0332135185599327087 0.0863113477826118469 0.582706809043884277 255 0 0
-0.033776458352804184 0.0877742543816566467 0.592583179473876953 255 0 0
-0.0343393981456756592 0.0892371609807014465 0.602459549903869629 255 0 0
-0.0349023416638374329 0.0907000675797462463 0.61233597993850708 255 0 0
-0.0354652814567089081 0.0921629667282104492 0.622212350368499756 255 0 0
-0.0360282212495803833 0.093625873327255249 0.632088720798492432 255 0 0
-0.036591164767742157 0.0950887799263000488 0.641965091228485107 255 0 0
-0.0371541045606136322 0.0965516790747642517 0.651841521263122559 255 0 0
-0.0377170443534851074 0.0980145856738090515 0.661717891693115234 255 0 0
-0.0382799878716468811 0.0994774922728538513 0.67159426212310791 255 0 0
-0.0388429276645183563 0.100940391421318054 0.681470692157745361 255 0 0
-0.0394058674573898315 0.102403298020362854 0.691347062587738037 255 0 0
-0.0399688109755516052 0.103866204619407654 0.701223433017730713 255 0 0
-0.0405317507684230804 0.105329103767871857 0.711099803447723389 255 0 0
-0.0410946905612945557 0.106792010366916656 0.72097623348236084 255 0 0
-0.0416576303541660309 0.108254916965961456 0.730852603912353516 255 0 0
-0.0422205738723278046 0.109717816114425659 0.740728974342346191 255 0 0
-0.0427835136651992798 0.111180722713470459 0.750605344772338867 255 0 0
-0.043346453458070755 0.112643629312515259 0.760481774806976318 255 0 0
-0.0439093969762325287 0.114106535911560059 0.770358145236968994 255 0 0
-0.0444723367691040039 0.115569435060024261 0.78023451566696167 255 0 0
-0.0450352765619754791 0.117032341659069061 0.790110886096954346 255 0 0
-0.0455982200801372528 0.118495248258113861 0.799987316131591797 255 0 0
-0.046161159873008728 0.119958147406578064 0.809863686561584473 255 0 0
-0.0467240996658802032 0.121421054005622864 0.819740056991577148 255 0 0
-0.0472870431840419769 0.122883960604667664 0.8296164870262146 255 0 0
-0.0478499829769134521 0.124346859753131866 0.839492857456207275 255 0 0
-0.0484129227697849274 0.125809773802757263 0.849369227886199951 255 0 0
-0.048975866287946701 0.127272665500640869 0.859245598316192627 255 0 0
-0.0495388060808181763 0.128735572099685669 0.869122028350830078 255 0 0
-0.0501017458736896515 0.130198478698730469 0.878998398780822754 255 0 0
-0.0506646893918514252 0.131661385297775269 0.88887476921081543 255 0 0
-0.0512276291847229004 0.133124291896820068 0.898751139640808105 255 0 0
-0.0517905689775943756 0.134587198495864868 0.908627569675445557 255 0 0
-0.0523535087704658508 0.136050090193748474 0.918503940105438232 255 0 0
-0.0529164522886276245 0.137512996792793274 0.928380310535430908 255 0 0
-0.0534793920814990997 0.138975903391838074 0.938256680965423584 255 0 0
-0.054042331874370575 0.140438809990882874 0.948133111000061035 255 0 0
-0.0546052753925323486 0.141901716589927673 0.958009481430053711 255 0 0
-0.0551682151854038239 0.143364623188972473 0.967885851860046387 255 0 0
-0.0557311549782752991 0.144827514886856079 0.977762281894683838 255 0 0
0 0 0 0 0 255
0.00022412282123696059 -0.00988772884011268616 0.00147735897917300463 0 0 255
0.00044824564247392118 -0.0197754576802253723 0.00295471795834600925 0 0 255
0.000672368449158966541 -0.0296631865203380585 0.00443207705393433571 0 0 255
0.00089649128494784236 -0.0395509153604507446 0.00590943591669201851 0 0 255
0.00112061412073671818 -0.0494386442005634308 0.00738679524511098862 0 0 255
0.00134473689831793308 -0.0593263730406761169 0.00886415410786867142 0 0 255
0.00156885979231446981 -0.0692140981554985046 0.0103415129706263542 0 0 255
0.00179298256989568472 -0.0791018307209014893 0.011818871833384037 0 0 255
0.00201710546389222145 -0.088989555835723877 0.0132962306961417198 0 0 255
0.00224122824147343636 -0.0988772884011268616 0.0147735904902219772 0 0 255
0.00246535101905465126 -0.108765013515949249 0.01625094935297966 0 0 255
0.00268947379663586617 -0.118652746081352234 0.0177283082157373428 0 0 255
0.00291359680704772472 -0.128540471196174622 0.0192056670784950256 0 0 255
0.00313771958462893963 -0.138428196310997009 0.0206830259412527084 0 0 255
0.00336184236221015453 -0.148315936326980591 0.0221603848040103912 0 0 255
0.00358596513979136944 -0.158203661441802979 0.023637743666768074 0 0 255
0.00381008791737258434 -0.168091386556625366 0.0251151025295257568 0 0 255
0.0040342109277844429 -0.177979111671447754 0.0265924613922834396 0 0 255
0.00425833370536565781 -0.187866851687431335 0.0280698202550411224 0 0 255
0.00448245648294687271 -0.197754576802253723 0.0295471809804439545 0 0 255
0.00470657926052808762 -0.207642301917076111 0.0310245398432016373 0 0 255
0.00493070203810930252 -0.217530027031898499 0.0325018987059593201 0 0 255
0.00515482481569051743 -0.22741776704788208 0.0339792557060718536 0 0 255
0.00537894759327173233 -0.237305492162704468 0.0354566164314746857 0 0 255
0.00560307037085294724 -0.247193217277526855 0.0369339734315872192 0 0 255
0.00582719361409544945 -0.257080942392349243 0.0384113341569900513 0 0 255
0.00605131639167666435 -0.266968667507171631 0.0398886948823928833 0 0 255
0.00627543916925787926 -0.276856392621994019 0.0413660518825054169 0 0 255
0.00649956194683909416 -0.286744147539138794 0.0428434126079082489 0 0 255
0.00672368472442030907 -0.296631872653961182 0.0443207696080207825 0 0 255
0.00694780750200152397 -0.306519597768783569 0.0457981303334236145 0 0 255
0.00717193027958273888 -0.316407322883605957 0.0472754873335361481 0 0 255
0.00739605305716395378 -0.326295047998428345 0.0487528480589389801 0 0 255
0.00762017583474516869 -0.336182773113250732 0.0502302050590515137 0 0 255
0.0078442990779876709 -0.34607049822807312 0.0517075657844543457 0 0 255
0.0080684218555688858 -0.355958223342895508 0.0531849227845668793 0 0 255
0.00829254463315010071 -0.365845948457717896 0.0546622835099697113 0 0 255
0.00851666741073131561 -0.375733703374862671 0.0561396405100822449 0 0 255
0.00874079018831253052 -0.385621428489685059 0.0576170012354850769 0 0 255
0.00896491296589374542 -0.395509153604507446 0.0590943619608879089 0 0 255
0.00918903574347496033 -0.405396878719329834 0.0605717189610004425 0 0 255
0.00941315852105617523 -0.415284603834152222 0.0620490796864032745 0 0 255
0.00963728129863739014 -0.425172328948974609 0.0635264366865158081 0 0 255
0.00986140407621860504 -0.435060054063796997 0.0650037974119186401 0 0 255
0.0100855268537998199 -0.444947779178619385 0.0664811581373214722 0 0 255
0.0103096496313810349 -0.45483553409576416 0.0679585114121437073 0 0 255
0.0105337724089622498 -0.464723259210586548 0.0694358721375465393 0 0 255
0.0107578951865434647 -0.474610984325408936 0.0709132328629493713 0 0 255
0.0109820179641246796 -0.484498709440231323 0.0723905935883522034 0 0 255
0.0112061407417058945 -0.494386434555053711 0.0738679468631744385 0 0 255
0.011430264450609684 -0.504274189472198486 0.0753453075885772705 0 0 255
0.0116543872281908989 -0.514161884784698486 0.0768226683139801025 0 0 255
0.0118785100057721138 -0.524049639701843262 0.0783000290393829346 0 0 255
0.0121026327833533287 -0.533937335014343262 0.0797773897647857666 0 0 255
0.0123267555609345436 -0.543825089931488037 0.0812547430396080017 0 0 255
0.0125508783385157585 -0.553712785243988037 0.0827321037650108337 0 0 255
0.0127750011160969734 -0.563600540161132812 0.0842094644904136658 0 0 255
0.0129991238936781883 -0.573488295078277588 0.0856868252158164978 0 0 255
0.0132232466712594032 -0.583375990390777588 0.0871641784906387329 0 0 255
0.0134473694488406181 -0.593263745307922363 0.0886415392160415649 0 0 255
0.013671492226421833 -0.603151440620422363 0.090118899941444397 0 0 255
0.0138956150040030479 -0.613039195537567139 0.091596260666847229 0 0 255
0.0141197377815842628 -0.622926890850067139 0.0930736139416694641 0 0 255
0.0143438605591654778 -0.632814645767211914 0.0945509746670722961 0 0 255
0.0145679833367466927 -0.642702341079711914 0.0960283353924751282 0 0 255
0.0147921061143279076 -0.652590095996856689 0.0975056961178779602 0 0 255
0.0150162288919091225 -0.662477850914001465 0.0989830568432807922 0 0 255
0.0152403516694903374 -0.672365546226501465 0.100460410118103027 0 0 255
0.0154644744470715523 -0.68225330114364624 0.101937770843505859 0 0 255
0.0156885981559753418 -0.69214099645614624 0.103415131568908691 0 0 255
0.0159127209335565567 -0.702028751373291016 0.104892492294311523 0 0 255
0.0161368437111377716 -0.711916446685791016 0.106369845569133759 0 0 255
0.0163609664887189865 -0.721804201602935791 0.107847206294536591 0 0 255
0.0165850892663002014 -0.731691896915435791 0.109324567019939423 0 0 255
0.0168092120438814163 -0.741579651832580566 0.110801927745342255 0 0 255
0.0170333348214626312 -0.751467406749725342 0.11227928102016449 0 0 255
0.0172574575990438461 -0.761355102062225342 0.113756641745567322 0 0 255
0.017481580376625061 -0.771242856979370117 0.115234002470970154 0 0 255
0.0177057031542062759 -0.781130552291870117 0.116711363196372986 0 0 255
0.0179298259317874908 -0.791018307209014893 0.118188723921775818 0 0 255
0.0181539487093687057 -0.800906002521514893 0.119666077196598053 0 0 255
0.0183780714869499207 -0.810793757438659668 0.121143437922000885 0 0 255
0.0186021942645311356 -0.820681512355804443 0.122620798647403717 0 0 255
0.0188263170421123505 -0.830569207668304443 0.124098159372806549 0 0 255
0.0190504398196935654 -0.840456962585449219 0.125575512647628784 0 0 255
0.0192745625972747803 -0.850344657897949219 0.127052873373031616 0 0 255
0.0194986853748559952 -0.860232412815093994 0.128530234098434448 0 0 255
0.0197228081524372101 -0.870120108127593994 0.13000759482383728 0 0 255
0.019946930930018425 -0.88000786304473877 0.131484955549240112 0 0 255
0.0201710537075996399 -0.88989555835723877 0.132962316274642944 0 0 255
0.0203951764851808548 -0.899783313274383545 0.134439662098884583 0 0 255
0.0206192992627620697 -0.90967106819152832 0.135917022824287415 0 0 255
0.0208434220403432846 -0.91955876350402832 0.137394383549690247 0 0 255
0.0210675448179244995 -0.929446518421173096 0.138871744275093079 0 0 255
0.0212916675955057144 -0.939334213733673096 0.140349105000495911 0 0 255
0.0215157903730869293 -0.949221968650817871 0.141826465725898743 0 0 255
0.0217399131506681442 -0.959109663963317871 0.143303826451301575 0 0 255
0.0219640359282493591 -0.968997418880462646 0.144781187176704407 0 0 255
0.022188158705830574 -0.978885114192962646 0.146258547902107239 0 0 255
